ply
format ascii 1.0
comment VCGLIB generated
element vertex 659
property float x
property float y
property float z
property float nx
property float ny
property float nz
element face 0
property list uchar int vertex_indices
end_header
-0.126774 -0.0661893 0.0991922 -3.138949e-07 -7.338083e-07 6.024908e-07 
-0.104042 -0.0875774 0.0880327 -2.830404e-07 -9.552026e-07 -8.646336e-08 
-0.104976 -0.08681781 0.0838527 -5.857412e-08 -9.907445e-07 -1.22451e-07 
-0.147596 -0.0535071 0.08216511 -4.407201e-07 -8.927456e-07 -9.365287e-08 
-0.0768101 -0.07860921 0.0911749 9.120278e-07 -1.695796e-07 3.734272e-07 
-0.08595721 -0.0847671 0.0974509 6.122297e-07 -1.78516e-07 7.70264e-07 
-0.119331 -0.07623281 0.08491331 -5.76426e-07 -6.756471e-07 4.596019e-07 
-0.0721362 -0.0503336 0.0905847 6.531037e-07 -2.796972e-07 7.037221e-07 
-0.131657 -0.05833481 0.10443 -5.224743e-07 7.502569e-08 8.493477e-07 
-0.107596 -0.0398292 0.111471 -7.721247e-07 3.683282e-07 5.178395e-07 
-0.0514092 -0.02202 0.0872217 6.732687e-07 -5.184953e-07 5.271353e-07 
-0.0885831 -0.0248262 0.111861 -7.678175e-08 2.372874e-07 9.684003e-07 
-0.0767561 -0.0891785 0.0814518 8.993663e-07 -3.625715e-07 2.442989e-07 
-0.133911 -0.0390075 0.100832 -5.007596e-07 5.888475e-07 6.344275e-07 
-0.142816 -0.0579595 0.0962892 -4.803683e-07 -8.770612e-07 -3.137838e-09 
-0.06505401 -0.022391 0.0987827 5.926109e-07 -3.970964e-07 7.008043e-07 
-0.07873441 -0.0911189 0.08561171 8.585192e-07 -2.240939e-07 4.612228e-07 
-0.103764 -0.0429916 0.114198 -3.03841e-07 1.287585e-07 9.439818e-07 
-0.0767659 -0.00630089 0.101411 -6.998124e-07 7.142307e-07 -1.170045e-08 
-0.0633604 -0.0112391 0.103203 4.818232e-07 -2.272631e-07 8.462846e-07 
-0.101537 -0.0820289 0.104553 -8.356851e-07 -5.381307e-07 1.097522e-07 
-0.102684 -0.06303871 0.108769 -7.947821e-08 -1.001769e-07 9.917901e-07 
-0.0673446 -0.0222454 0.10104 6.244849e-07 -4.167231e-07 6.605756e-07 
-0.145684 -0.0474323 0.09289531 -7.578312e-07 5.132991e-07 4.027602e-07 
-0.125553 -0.0534156 0.105996 -1.053369e-07 -2.878377e-07 9.518683e-07 
-0.114654 -0.0663064 0.106148 -5.634506e-07 -6.963334e-08 8.232099e-07 
-0.0758412 -0.00585875 0.104443 -6.8139e-07 6.933656e-07 2.344175e-07 
-0.0737821 -0.059369 0.08629261 8.632815e-07 -3.199754e-07 3.90334e-07 
-0.0860961 -0.0171374 0.109861 -3.041509e-07 4.897011e-07 8.171199e-07 
-0.08043621 -0.0486551 0.09760441 5.178562e-07 -2.5414e-07 8.168462e-07 
-0.06948861 0.0009280491 0.0915018 -6.844577e-07 7.150849e-07 -1.420248e-07 
-0.113465 -0.0767045 0.10194 -5.087072e-07 -7.577345e-07 4.087239e-07 
-0.0944105 -0.0252731 0.109205 -5.3798e-07 6.360909e-07 5.531417e-07 
-0.125465 -0.0725784 0.0852111 -8.682826e-07 -4.682326e-07 1.638395e-07 
-0.114041 -0.0408287 0.106729 -3.338104e-07 2.429152e-07 9.108033e-07 
-0.127307 -0.06888211 0.09122471 -5.824306e-07 -8.00001e-07 1.44127e-07 
-0.0565521 0.00685582 0.104374 -1.802165e-07 3.621971e-07 9.145136e-07 
-0.0715489 -0.00102946 0.0841672 -6.212184e-07 7.607727e-07 1.879164e-07 
-0.104483 -0.05881371 0.109097 -7.439088e-09 -4.734231e-08 9.98851e-07 
-0.105012 -0.0518552 0.112638 -2.178825e-08 -2.558059e-07 9.664825e-07 
-0.10372 -0.0302442 0.100925 -5.207673e-07 8.517018e-07 -5.835563e-08 
-0.101089 -0.07796881 0.105243 -8.875757e-08 -1.844483e-07 9.788263e-07 
-0.0816045 -0.034898 0.10584 6.776128e-07 -5.687536e-07 4.662189e-07 
-0.101348 -0.0307798 0.10735 -5.18991e-07 6.809145e-07 5.16724e-07 
-0.133582 -0.0305644 0.0826244 -2.254003e-07 9.734486e-07 -3.990556e-08 
-0.146966 -0.0532802 0.07971451 -2.4378e-07 -9.691505e-07 -3.630895e-08 
-0.127182 -0.0359791 0.100966 -2.53697e-07 7.870201e-07 5.623494e-07 
-0.08141281 -0.0901888 0.0906954 7.70485e-07 -2.473427e-07 5.875152e-07 
-0.137568 -0.05818731 0.0813371 -6.095833e-07 -7.904569e-07 -5.988285e-08 
-0.111071 -0.0865851 0.0799932 -1.214021e-07 -9.925269e-07 1.230928e-08 
-0.136072 -0.0607347 0.0896459 -5.062228e-07 -8.324454e-07 -2.253284e-07 
-0.128715 -0.0323314 0.0966205 -2.585512e-07 7.749101e-07 5.767718e-07 
-0.0634408 -0.00246038 0.105132 2.902376e-07 -1.574582e-07 9.439115e-07 
-0.06730381 -0.0163413 0.103473 5.259392e-07 -3.191794e-07 7.883606e-07 
-0.0752838 -0.0819096 0.0833212 9.591088e-07 -1.752209e-07 2.222787e-07 
-0.0738856 -0.0306753 0.101531 4.979275e-07 -3.567976e-07 7.904198e-07 
-0.148232 -0.0536119 0.0879376 -4.558048e-07 -8.899361e-07 1.598446e-08 
-0.0860718 -0.0439154 0.103059 5.77843e-07 -4.220277e-07 6.985627e-07 
-0.0457964 -0.00100045 0.09470031 5.830147e-07 -4.265912e-07 6.914576e-07 
-0.114345 -0.0829303 0.08912641 -8.693301e-07 -2.318661e-07 4.364666e-07 
-0.0779034 -0.0594574 0.0927066 7.360783e-07 -3.799246e-08 6.758291e-07 
-0.101189 -0.0283598 0.0929113 -5.247914e-07 7.223251e-07 4.503779e-07 
-0.100648 -0.0467852 0.114269 -9.489657e-08 -2.067552e-07 9.737796e-07 
-0.0872315 -0.0376115 0.110008 4.061652e-07 -4.193118e-07 8.119158e-07 
-0.107095 -0.05764071 0.109771 1.031827e-07 -5.729482e-07 8.130704e-07 
-0.0816693 -0.0764778 0.100877 4.636301e-07 -6.246814e-07 6.283471e-07 
-0.0486826 0.0167147 0.102302 -2.318983e-07 3.027867e-07 9.244151e-07 
-0.0800629 -0.009791381 0.09086361 -6.91042e-07 7.011747e-07 1.755418e-07 
-0.0518385 0.0196552 0.09003161 -7.870172e-07 5.979879e-07 -1.517045e-07 
-0.129626 -0.0660887 0.09783 -3.391741e-07 -8.915837e-07 3.000655e-07 
-0.08983231 -0.0199431 0.0935175 -7.566586e-07 6.533613e-07 2.422128e-08 
-0.104538 -0.0308931 0.0993576 -5.229061e-07 8.518261e-07 3.100423e-08 
-0.105142 -0.08768991 0.0982938 -3.244928e-07 -9.420017e-07 8.565588e-08 
-0.107319 -0.0650465 0.107791 -1.229175e-07 -4.211115e-07 8.986413e-07 
-0.0766665 -0.08258381 0.0873325 8.074809e-07 -4.261968e-07 4.078366e-07 
-0.0976047 -0.090365 0.09008791 -5.391242e-07 -8.260052e-07 -1.644998e-07 
-0.148691 -0.04738791 0.08566231 -8.051774e-07 5.532265e-07 2.136111e-07 
-0.0813172 -0.0177808 0.109553 -8.584647e-10 3.30835e-07 9.436881e-07 
-0.0544898 0.0174893 0.09549401 -7.071619e-07 6.621239e-07 2.480198e-07 
-0.149172 -0.0526278 0.0812031 -6.967428e-07 -7.16878e-07 2.52031e-08 
-0.0911617 -0.0888973 0.0993019 4.400356e-07 -2.097145e-07 8.731485e-07 
-0.110841 -0.085371 0.0945496 -6.872723e-07 -6.278934e-07 3.652483e-07 
-0.0787037 -0.08894101 0.0870183 7.884858e-07 -2.94638e-07 5.398874e-07 
-0.0874702 -0.0764576 0.103457 2.232076e-07 -5.851015e-07 7.796373e-07 
-0.079179 -0.0827579 0.0918977 7.788071e-07 -4.579341e-07 4.286672e-07 
-0.04851611 0.0223918 0.0973837 -5.43738e-07 7.37374e-07 4.007847e-07 
-0.10922 -0.0509222 0.110625 -5.711161e-07 -1.054982e-07 8.140616e-07 
-0.128401 -0.0676702 0.09107541 -7.370717e-07 -6.729801e-07 -6.182992e-08 
-0.09093901 -0.0365707 0.111745 3.06274e-07 -1.103209e-07 9.455292e-07 
-0.115484 -0.06253631 0.107141 -2.033536e-07 -1.371087e-07 9.694578e-07 
-0.0911728 -0.0933146 0.083009 -6.205436e-07 -7.669153e-07 -1.636045e-07 
-0.125928 -0.0699186 0.09104411 -3.405499e-07 -9.056852e-07 2.52507e-07 
-0.0958546 -0.0730048 0.106011 1.569652e-08 3.872679e-08 9.991264e-07 
-0.09161951 -0.0234782 0.110188 -4.731614e-07 3.889081e-07 7.904863e-07 
-0.0846547 -0.0937429 0.0929845 7.53021e-07 -2.658437e-07 6.019022e-07 
-0.138257 -0.0563368 0.101741 -3.463097e-07 7.439007e-08 9.351661e-07 
-0.132347 -0.0395403 0.102561 -4.437401e-07 3.412617e-07 8.286344e-07 
-0.09806891 -0.048731 0.112637 5.595879e-07 -3.275096e-07 7.613138e-07 
-0.115383 -0.07327031 0.102782 -2.896439e-07 -4.595819e-07 8.395777e-07 
-0.102816 -0.0409818 0.114229 -7.073722e-08 1.895476e-07 9.7932e-07 
-0.100473 -0.08741251 0.08170331 -1.574345e-07 -9.772018e-07 -1.424458e-07 
-0.0476454 -0.008238381 0.0920786 5.981168e-07 -4.397396e-07 6.69989e-07 
-0.138926 -0.035363 0.08792911 -7.50597e-07 6.223486e-07 2.220048e-07 
-0.046044 0.0178624 0.102588 -2.318983e-07 3.027867e-07 9.244151e-07 
-0.137503 -0.0613061 0.09959961 -5.096601e-07 -8.479265e-07 1.458324e-07 
-0.0781132 -0.0075867 0.102163 -6.746808e-07 7.36873e-07 4.270591e-08 
-0.116987 -0.06123161 0.107135 -2.204025e-07 -2.433837e-07 9.445564e-07 
-0.0339421 0.00104968 0.0858271 6.616726e-07 -4.04111e-07 6.315722e-07 
-0.133674 -0.05497931 0.104701 -4.831687e-07 -4.2602e-07 7.648888e-07 
-0.0708013 -0.000460058 0.08592831 -6.74536e-07 7.366691e-07 4.816309e-08 
-0.130168 -0.0653192 0.0872478 -7.357455e-07 -6.69084e-07 -1.049044e-07 
-0.140163 -0.0566687 0.0835439 -4.274515e-07 -8.993879e-07 -9.157792e-08 
-0.08693241 -0.0253409 0.112118 -7.900304e-08 2.504404e-07 9.649031e-07 
-0.05277601 0.0122276 0.10277 -3.547415e-07 2.358878e-07 9.047183e-07 
-0.092548 -0.0219036 0.0986632 -6.818071e-07 7.314954e-07 7.306541e-09 
-0.0703036 -0.0501813 0.08853611 7.184206e-07 -3.171653e-07 6.190944e-07 
-0.107039 -0.0418812 0.112342 -6.767174e-07 -3.439185e-09 7.362348e-07 
-0.122607 -0.0706636 0.0914299 -1.466052e-07 -9.156158e-07 3.74372e-07 
-0.132232 -0.0322324 0.0943889 -3.999716e-07 8.321691e-07 3.840797e-07 
-0.112337 -0.0301844 0.0882806 9.400991e-08 9.089904e-07 4.060768e-07 
-0.0988181 -0.0246792 0.0877167 -4.334608e-07 8.438627e-07 3.162395e-07 
-0.0495249 -0.000671909 0.09752311 5.281516e-07 -4.074163e-07 7.450286e-07 
-0.0783561 -0.092962 0.0831043 9.265577e-07 -3.623361e-07 1.010106e-07 
-0.080099 -0.09765751 0.0811841 8.351434e-07 -5.002416e-07 2.286779e-07 
-0.116681 -0.07728501 0.0887093 -7.755837e-07 -5.377732e-07 3.305595e-07 
-0.127639 -0.0438676 0.105126 -9.698168e-08 6.363426e-08 9.932497e-07 
-0.0962363 -0.0485787 0.110588 6.681918e-07 -4.540753e-07 5.893515e-07 
-0.07137211 -0.0538165 0.08716681 7.412881e-07 -4.162261e-07 5.265431e-07 
-0.0888722 -0.0638743 0.102566 5.386026e-07 1.010915e-07 8.364732e-07 
-0.115591 -0.0311523 0.0936392 2.195009e-07 9.18791e-07 3.280885e-07 
-0.111339 -0.0335329 0.103889 -3.832145e-07 7.725396e-07 5.062895e-07 
-0.06575241 0.00426371 0.101011 -7.170266e-07 6.194729e-07 3.195718e-07 
-0.09317411 -0.0771934 0.104756 3.745596e-07 -4.099136e-07 8.316704e-07 
-0.10909 -0.08629581 0.0946746 -4.689373e-07 -8.790605e-07 8.573328e-08 
-0.07905971 -0.0806436 0.0939396 5.595548e-07 -6.005793e-07 5.711415e-07 
-0.0920265 -0.0211042 0.105096 -6.920618e-07 7.140358e-07 -1.058446e-07 
-0.0908581 -0.0204029 0.09157531 -4.968983e-07 8.109326e-07 3.089985e-07 
-0.138971 -0.0572926 0.081199 -4.28356e-07 -9.001004e-07 -7.956326e-08 
-0.0715551 -0.00133508 0.08844671 -7.166518e-07 6.968826e-07 2.764981e-08 
-0.058216 0.0124425 0.09019841 -7.752475e-07 5.761576e-07 -2.589083e-07 
-0.0786198 -0.0336988 0.104005 5.782024e-07 -4.481932e-07 6.817658e-07 
-0.117794 -0.0759301 0.0877305 -8.138235e-07 -4.930961e-07 3.074855e-07 
-0.0937302 -0.0302815 0.112687 -9.188935e-08 -1.576741e-08 9.956443e-07 
-0.122681 -0.0586483 0.106649 -3.846935e-08 -2.581427e-07 9.653405e-07 
-0.100932 -0.0254749 0.0856232 -4.848516e-07 8.613238e-07 1.517894e-07 
-0.0938379 -0.09281261 0.0894331 -5.643753e-07 -7.96442e-07 -2.171644e-07 
-0.127636 -0.06846511 0.0852332 -9.196246e-07 -3.923695e-07 -1.83457e-08 
-0.104279 -0.0821961 0.102995 -4.525206e-07 -4.667054e-07 7.598757e-07 
-0.128182 -0.0298814 0.0845947 1.650689e-08 9.92069e-07 -1.246052e-07 
-0.124246 -0.0481986 0.106336 -1.233262e-07 4.199989e-07 8.991059e-07 
-0.10318 -0.0309114 0.10563 -5.963709e-07 7.349651e-07 3.227505e-07 
-0.105181 -0.0618485 0.108736 -5.532582e-09 -2.614279e-07 9.652071e-07 
-0.0785508 -0.00977403 0.106776 -3.321201e-07 7.107128e-07 6.201479e-07 
-0.0646368 -0.0335003 0.0924947 5.395547e-07 -3.63943e-07 7.592272e-07 
-0.0908956 -0.0198532 0.106141 -6.920618e-07 7.140358e-07 -1.058446e-07 
-0.126273 -0.029874 0.0849065 1.650689e-08 9.92069e-07 -1.246052e-07 
-0.0453673 0.0166012 0.102944 -1.586582e-07 1.884457e-07 9.69183e-07 
-0.0998996 -0.0704475 0.106485 1.010531e-07 -6.262842e-08 9.929078e-07 
-0.09201591 -0.0941466 0.0886607 -6.25843e-07 -7.640398e-07 -1.567275e-07 
-0.146515 -0.0548208 0.0878081 -3.419678e-07 -9.270182e-07 -1.53932e-07 
-0.114606 -0.0788912 0.09156801 -7.662485e-07 -4.228931e-07 4.837607e-07 
-0.128636 -0.0301332 0.0824396 1.380813e-07 9.817625e-07 -1.306744e-07 
-0.0877128 -0.0975051 0.08568521 -6.509137e-07 -7.336528e-07 -1.951021e-07 
-0.0328175 0.0102085 0.09029811 6.392386e-07 -4.046488e-07 6.539366e-07 
-0.084815 -0.0300229 0.11197 6.016624e-07 -2.563872e-07 7.564839e-07 
-0.0859415 -0.09812471 0.0819134 -5.947985e-07 -7.919548e-07 -1.379209e-07 
-0.053551 0.0102333 0.103563 -8.772773e-08 1.201479e-07 9.888722e-07 
-0.0957069 -0.0829664 0.102992 4.052385e-07 -2.676788e-07 8.74145e-07 
-0.08540191 -0.0364818 0.109366 5.302948e-07 -4.5077e-07 7.180485e-07 
-0.149084 -0.0476819 0.0796085 -8.215215e-07 5.560867e-07 -1.259757e-07 
-0.139419 -0.0601728 0.0964788 -4.946551e-07 -8.514859e-07 -1.740342e-07 
-0.103168 -0.0297909 0.09400591 -4.472252e-07 8.791794e-07 1.644171e-07 
-0.112945 -0.0654789 0.106723 -2.088903e-07 -1.816739e-07 9.609158e-07 
-0.142534 -0.0460346 0.096867 -7.842229e-07 2.765054e-07 5.554629e-07 
-0.100379 -0.069029 0.107271 -9.958921e-09 -4.876131e-07 8.73003e-07 
-0.09199131 -0.09306771 0.08495621 -5.989372e-07 -7.680682e-07 -2.265953e-07 
-0.102317 -0.0434598 0.114526 -1.476567e-07 1.241867e-07 9.81211e-07 
-0.0432165 0.0127126 0.09998481 6.020247e-07 -3.659127e-07 7.096999e-07 
-0.0951916 -0.0242526 0.0991428 -6.38628e-07 7.684483e-07 -4.051423e-08 
-0.0353082 0.00481429 0.0893957 6.577007e-07 -4.09621e-07 6.321711e-07 
-0.0900545 -0.0962587 0.0915231 -2.413426e-07 -9.261818e-07 2.897255e-07 
-0.07627111 -0.06565271 0.08874211 9.201347e-07 -8.738044e-08 3.817285e-07 
-0.08352011 -0.07872681 0.0997937 3.645952e-07 -6.218173e-07 6.931186e-07 
-0.09623221 -0.0558891 0.108855 6.30426e-07 8.161635e-08 7.719466e-07 
-0.0524114 0.0184896 0.09803621 -5.513613e-07 6.046584e-07 5.747945e-07 
-0.06769031 0.00264965 0.0849211 -7.352979e-07 6.770287e-07 -3.112753e-08 
-0.0576361 0.0136678 0.0972044 -7.457259e-07 6.244048e-07 2.324036e-07 
-0.107197 -0.06749351 0.107336 3.233948e-07 -3.410301e-07 8.826743e-07 
-0.107179 -0.037947 0.110754 -7.353374e-07 3.708125e-07 5.672538e-07 
-0.0985916 -0.0902763 0.091658 -4.444321e-07 -8.701218e-07 -2.129975e-07 
-0.0890512 -0.0794472 0.101916 4.175905e-07 -5.079635e-07 7.533864e-07 
-0.116524 -0.07505 0.09522121 -6.711922e-07 -6.501888e-07 3.56027e-07 
-0.09806921 -0.0711506 0.106352 7.396702e-08 -8.254383e-08 9.938386e-07 
-0.0655153 -0.0479125 0.0836326 7.755644e-07 -4.637963e-07 4.282436e-07 
-0.0526513 0.0164802 0.100023 -4.776848e-07 5.363341e-07 6.958181e-07 
-0.10517 -0.0787909 0.105076 -3.159554e-07 -3.596441e-07 8.779681e-07 
-0.0528917 -0.024931 0.08625191 7.372904e-07 -4.634427e-07 4.915521e-07 
-0.112657 -0.0775213 0.101014 -7.080436e-07 -6.681408e-07 2.286089e-07 
-0.103235 -0.0879872 0.0899182 -4.001793e-07 -8.903318e-07 -2.171762e-07 
-0.143521 -0.0450088 0.094414 -8.202027e-07 4.056227e-07 4.034074e-07 
-0.07618 -0.00703041 0.105604 -5.293354e-07 6.694767e-07 5.211571e-07 
-0.0555141 0.0105736 0.10287 -3.314801e-07 5.658599e-07 7.549327e-07 
-0.111841 -0.0839378 0.09452481 -7.908131e-07 -5.03437e-07 3.480884e-07 
-0.081555 -0.06469031 0.09730881 6.719686e-07 2.028176e-07 7.122661e-07 
-0.140213 -0.0526164 0.100925 -5.466675e-07 3.694154e-08 8.365344e-07 
-0.117681 -0.0336802 0.09991051 2.600365e-07 9.135315e-07 3.127955e-07 
-0.0566465 -0.0305069 0.0870249 7.505009e-07 -3.698858e-07 5.47661e-07 
-0.0557894 -0.0306124 0.0857791 7.905431e-07 -4.713115e-07 3.910332e-07 
-0.08582341 -0.0265532 0.11265 3.699809e-07 1.783814e-08 9.28868e-07 
-0.07745491 -0.00723778 0.09083271 -6.148815e-07 7.835799e-07 8.901226e-08 
-0.0616038 0.00895375 0.0903213 -7.147617e-07 6.816682e-07 -1.563458e-07 
-0.104411 -0.0574718 0.109798 1.539833e-07 -3.601116e-07 9.201133e-07 
-0.138315 -0.0396369 0.09722721 -6.905685e-07 4.104831e-07 5.954986e-07 
-0.0942722 -0.0637432 0.106218 5.294658e-07 -2.903073e-07 7.97112e-07 
-0.07515921 -0.0561744 0.09088301 7.620429e-07 -3.909305e-07 5.162013e-07 
-0.104582 -0.0270827 0.0837779 -3.750602e-07 9.237953e-07 7.701871e-08 
-0.0807047 -0.07811341 0.0985392 4.636301e-07 -6.246814e-07 6.283471e-07 
-0.146516 -0.0543114 0.08474261 -3.094201e-07 -9.342177e-07 -1.774721e-07 
-0.09544741 -0.09274741 0.0950506 -3.982353e-07 -9.167375e-07 3.163716e-08 
-0.0654762 -0.0138065 0.10328 5.259392e-07 -3.191794e-07 7.883606e-07 
-0.113565 -0.0815881 0.0918454 -8.811305e-07 -2.494871e-07 4.017028e-07 
-0.044882 -0.0158295 0.0840459 7.382567e-07 -5.45726e-07 3.96434e-07 
-0.141448 -0.0452099 0.0977215 -7.37175e-07 4.350162e-07 5.170433e-07 
-0.0882504 -0.0571106 0.101656 2.995504e-07 1.299614e-07 9.451875e-07 
-0.0356799 0.0122774 0.09408101 5.667885e-07 -4.049768e-07 7.174568e-07 
-0.0576012 0.00800532 0.103712 -1.802165e-07 3.621971e-07 9.145136e-07 
-0.0562725 -0.0139017 0.0961001 6.004155e-07 -3.729516e-07 7.073954e-07 
-0.09718831 -0.0805424 0.104711 3.372868e-07 -4.128272e-07 8.460563e-07 
-0.130004 -0.0298915 0.0865792 -1.133629e-07 9.933631e-07 -1.945674e-08 
-0.0960282 -0.0339231 0.112258 -5.185118e-10 2.465675e-07 9.691254e-07 
-0.143714 -0.0416226 0.08893181 -7.187323e-07 6.496863e-07 2.47652e-07 
-0.101901 -0.08708731 0.08220421 -1.971995e-07 -9.344629e-07 -2.964644e-07 
-0.05737481 0.0136197 0.0986637 -5.761632e-07 7.133609e-07 3.989386e-07 
-0.14462 -0.0547923 0.0839684 -2.971915e-07 -9.495736e-07 -9.993518e-08 
-0.104161 -0.0323705 0.107198 -3.911793e-07 7.82898e-07 4.837864e-07 
-0.088911 -0.0165472 0.0840333 -5.413045e-07 8.050163e-07 2.427717e-07 
-0.077798 -0.0900861 0.08385321 8.970114e-07 -3.468987e-07 2.739189e-07 
-0.0868406 -0.0295588 0.113068 2.179412e-07 -1.332442e-07 9.668233e-07 
-0.137048 -0.0367401 0.0962249 -4.490609e-07 6.488078e-07 6.143229e-07 
-0.132794 -0.0336421 0.0957498 -2.903125e-07 7.223131e-07 6.2768e-07 
-0.0589856 -0.0257377 0.09229191 6.312843e-07 -3.892021e-07 6.708216e-07 
-0.0846131 -0.0371554 0.107611 6.038318e-07 -6.35489e-07 4.811867e-07 
-0.120335 -0.058307 0.106625 2.576661e-07 -2.065291e-08 9.660131e-07 
-0.0890273 -0.09496421 0.0953187 3.489266e-07 -6.482574e-07 6.767662e-07 
-0.0884444 -0.0318555 0.113062 -1.744313e-07 -7.666747e-08 9.816799e-07 
-0.127592 -0.0684457 0.08261271 -9.196247e-07 -3.923695e-07 -1.83457e-08 
-0.106268 -0.08667961 0.0828154 -9.653089e-09 -9.926987e-07 -1.202333e-07 
-0.109569 -0.0422986 0.109498 -6.682849e-07 6.76066e-08 7.408269e-07 
-0.107948 -0.0308986 0.0927145 -2.974087e-07 8.696821e-07 3.939555e-07 
-0.066156 -0.0115679 0.10433 3.909826e-07 -2.111148e-07 8.958588e-07 
-0.0500377 0.0221092 0.09118061 -7.31138e-07 6.568027e-07 -1.845186e-07 
-0.144166 -0.0501632 0.09660411 -7.109908e-07 3.752695e-07 5.946971e-07 
-0.0994685 -0.0265347 0.09150761 -4.555384e-07 8.116242e-07 3.657194e-07 
-0.143315 -0.0541581 0.0985478 -5.666897e-07 1.529948e-07 8.096018e-07 
-0.107909 -0.0552761 0.110698 -1.415173e-07 -1.225214e-07 9.823244e-07 
-0.135079 -0.0317445 0.0866394 -4.803376e-07 8.760256e-07 4.306718e-08 
-0.0903051 -0.0342468 0.112043 6.543338e-08 -2.5148e-07 9.65648e-07 
-0.0737937 -0.00332955 0.0970237 -6.752375e-07 7.338499e-07 -7.428629e-08 
-0.08825341 -0.0664778 0.102604 5.404623e-07 1.405625e-07 8.295436e-07 
-0.12365 -0.0697384 0.0933224 -1.53634e-07 -9.436405e-07 2.931535e-07 
-0.11882 -0.0720125 0.0962688 -8.178653e-07 -4.766471e-07 3.223409e-07 
-0.103004 -0.0728446 0.106023 -2.486458e-07 -1.183137e-07 9.613412e-07 
-0.0415128 0.00610814 0.09512281 5.569568e-07 -4.153179e-07 7.192427e-07 
-0.0774385 -0.0757409 0.0940122 9.113389e-07 2.633848e-08 4.108132e-07 
-0.07217541 -0.00474008 0.105968 -3.790184e-07 5.448286e-07 7.480018e-07 
-0.117236 -0.0749076 0.0927569 -7.95929e-07 -5.928097e-07 1.22774e-07 
-0.0492828 0.0228819 0.0945386 -7.025153e-07 6.971777e-07 1.428825e-07 
-0.08810141 -0.09674121 0.09227981 -2.043341e-07 -8.96705e-07 3.926417e-07 
-0.109768 -0.07432431 0.105125 -7.706333e-07 -2.457198e-07 5.880017e-07 
-0.0671685 0.00385607 0.09416491 -7.627556e-07 6.226587e-07 -1.746423e-07 
-0.06336191 -0.0420475 0.0863052 6.565507e-07 -5.266765e-07 5.399564e-07 
-0.07989711 -0.009042201 0.0860676 -5.404255e-07 8.133854e-07 2.152769e-07 
-0.122334 -0.0750284 0.08445231 -3.54899e-07 -8.036031e-07 4.777747e-07 
-0.114325 -0.0773314 0.09545571 -6.964351e-07 -7.171644e-07 2.555724e-08 
-0.0813925 -0.0872367 0.0919116 7.740135e-07 -2.934827e-07 5.610443e-07 
-0.110286 -0.0587117 0.10957 -3.930429e-07 -2.806386e-07 8.756478e-07 
-0.0700953 -0.0123126 0.105882 4.781768e-07 -2.040384e-07 8.542336e-07 
-0.0711002 -0.0474711 0.0909963 7.03537e-07 -3.383441e-07 6.249469e-07 
-0.125239 -0.0411249 0.10472 -1.099764e-07 3.48516e-07 9.308284e-07 
-0.12456 -0.0671271 0.09859721 -1.965492e-07 -8.455544e-07 4.963929e-07 
-0.120793 -0.0775152 0.08260321 -6.392538e-07 -4.624391e-07 6.144139e-07 
-0.148069 -0.048322 0.0894066 -7.702379e-07 5.646942e-07 2.964014e-07 
-0.08174741 -0.06816711 0.09833401 7.301064e-07 4.049955e-07 5.503844e-07 
-0.085693 -0.0143179 0.104739 -6.701561e-07 7.419926e-07 1.837852e-08 
-0.108127 -0.0749813 0.105446 1.938248e-08 -1.987792e-07 9.798525e-07 
-0.0804033 -0.00968088 0.102119 -6.886513e-07 7.187431e-07 -9.574713e-08 
-0.061611 -0.0358046 0.08861011 5.832735e-07 -3.940142e-07 7.103131e-07 
-0.100308 -0.0334973 0.111396 -4.321375e-07 6.575105e-07 6.172008e-07 
-0.044776 0.0221916 0.100821 -4.234117e-07 5.112421e-07 7.478996e-07 
-0.139785 -0.04432 0.09881 -6.456015e-07 4.902227e-07 5.855598e-07 
-0.0582696 0.0117509 0.09971711 -6.050543e-07 5.906502e-07 5.338928e-07 
-0.0706384 -0.0290967 0.100198 5.681084e-07 -3.175502e-07 7.592197e-07 
-0.122289 -0.0347932 0.103212 -6.730934e-08 6.758979e-07 7.33915e-07 
-0.132697 -0.0632944 0.10127 -3.409978e-07 -7.353189e-07 5.856846e-07 
-0.0824092 -0.09606601 0.08893751 6.966627e-07 -3.807308e-07 6.080336e-07 
-0.0563251 -0.0332647 0.0832411 8.044295e-07 -5.386183e-07 2.505661e-07 
-0.145638 -0.0555787 0.0904571 -3.883034e-07 -9.074959e-07 -1.602229e-07 
-0.115316 -0.0520336 0.107977 -4.55448e-07 8.475593e-08 8.862186e-07 
-0.116018 -0.0298769 0.08305331 -5.575762e-07 8.231103e-07 1.076946e-07 
-0.0506151 0.00530451 0.101467 5.277284e-07 -3.579742e-07 7.702967e-07 
-0.140019 -0.0369003 0.0885432 -7.980602e-07 5.592382e-07 2.243935e-07 
-0.0847557 -0.0145879 0.096655 -6.674499e-07 7.409837e-07 -7.384827e-08 
-0.0679561 -0.00777057 0.105615 2.99572e-07 -7.021277e-08 9.514865e-07 
-0.0679991 -0.0494109 0.08640671 7.378123e-07 -3.374327e-07 5.846127e-07 
-0.0738735 -0.00408131 0.104116 -4.974511e-07 7.436332e-07 4.467121e-07 
-0.0532342 -0.0148013 0.093047 5.837724e-07 -3.678856e-07 7.237884e-07 
-0.0863389 -0.0774463 0.1022 2.508719e-07 -6.382068e-07 7.278429e-07 
-0.113166 -0.0424214 0.107524 -5.515127e-07 1.008859e-07 8.280432e-07 
-0.124026 -0.0626626 0.104395 -2.612834e-07 -6.885094e-07 6.765246e-07 
-0.06570821 -0.007507881 0.10502 3.123762e-07 -1.685278e-07 9.348901e-07 
-0.0613032 0.00986105 0.0981039 -6.459846e-07 7.053798e-07 2.917926e-07 
-0.0496866 -0.0166927 0.0890156 6.414889e-07 -3.59849e-07 6.774958e-07 
-0.113217 -0.0394672 0.106827 -2.345492e-07 2.21609e-07 9.465072e-07 
-0.0984089 -0.0906486 0.099252 -3.920867e-07 -8.690868e-07 3.015892e-07 
-0.130889 -0.0597207 0.103761 -2.192841e-07 -4.34862e-07 8.733896e-07 
-0.073245 -0.00283577 0.0955346 -7.919419e-07 6.01415e-07 -1.054883e-07 
-0.112135 -0.0466046 0.109078 -4.744317e-07 1.839637e-07 8.608552e-07 
-0.100623 -0.08388711 0.103239 -1.244892e-07 -5.386617e-07 8.332741e-07 
-0.08063731 -0.0267801 0.109134 6.252753e-07 -2.059314e-07 7.527435e-07 
-0.09830561 -0.0323521 0.111578 -2.337538e-07 4.263039e-07 8.738558e-07 
-0.0914274 -0.0212018 0.09696131 -6.77734e-07 7.348407e-07 2.618443e-08 
-0.142101 -0.0423811 0.0943638 -7.878019e-07 4.340731e-07 4.369766e-07 
-0.09828831 -0.0387672 0.113742 1.895276e-07 2.02134e-07 9.608439e-07 
-0.144412 -0.0564484 0.0952009 -6.962296e-07 -7.17382e-07 2.504375e-08 
-0.09881881 -0.0241699 0.0846512 -5.148382e-07 8.231715e-07 2.394371e-07 
-0.07915641 -0.0282877 0.107161 6.576012e-07 -3.091515e-07 6.870123e-07 
-0.146245 -0.0515911 0.0950196 -7.662489e-07 3.218425e-07 5.561292e-07 
-0.0769553 -0.0466961 0.09600711 5.217514e-07 -3.321316e-07 7.857887e-07 
-0.08479621 -0.0633165 0.0994757 6.005358e-07 7.199322e-08 7.963502e-07 
-0.112312 -0.0858379 0.08451181 -3.707111e-07 -9.224333e-07 1.081196e-07 
-0.11274 -0.034471 0.10426 -3.832145e-07 7.725396e-07 5.062894e-07 
-0.0791999 -0.0092048 0.0919179 -7.947165e-07 6.025648e-07 -7.308295e-08 
-0.0920219 -0.0927218 0.0983078 -1.299547e-08 -3.60357e-07 9.327238e-07 
-0.114222 -0.07250891 0.103889 -5.625972e-07 -3.267621e-07 7.594147e-07 
-0.146755 -0.0541833 0.094908 -8.43442e-07 -3.191365e-08 5.362712e-07 
-0.0696696 -0.0393661 0.09357081 6.38218e-07 -3.790937e-07 6.70049e-07 
-0.134719 -0.031184 0.0818359 -4.109975e-07 9.040042e-07 -1.177172e-07 
-0.11086 -0.0601821 0.108887 -7.469958e-08 -4.108519e-07 9.086367e-07 
-0.08198681 -0.09257551 0.090267 7.970003e-07 -2.870601e-07 5.314009e-07 
-0.0917157 -0.0618193 0.104399 6.2866e-07 -4.968858e-08 7.76091e-07 
-0.058502 -0.008483831 0.100916 5.705513e-07 -3.405227e-07 7.473388e-07 
-0.115743 -0.07767811 0.0902706 -7.968346e-07 -5.501109e-07 2.498646e-07 
-0.104094 -0.0466884 0.113951 -2.8015e-07 7.706376e-09 9.599252e-07 
-0.09892441 -0.0455304 0.114269 2.010976e-07 -1.610796e-07 9.662365e-07 
-0.0686215 -9.509661e-05 0.10386 -5.231147e-07 6.907398e-07 4.992288e-07 
-0.050918 0.0165333 0.101172 -4.217468e-07 5.046512e-07 7.532972e-07 
-0.112131 -0.0615921 0.10823 -3.446158e-07 -2.255244e-07 9.112511e-07 
-0.10105 -0.0567313 0.109673 -3.681224e-08 -3.361259e-07 9.410973e-07 
-0.114597 -0.07479931 0.102942 -6.438692e-07 -2.335459e-07 7.28621e-07 
-0.0865319 -0.0664854 0.101709 6.1242e-07 3.045182e-07 7.295275e-07 
-0.102597 -0.0473617 0.114213 -1.662035e-07 -1.557192e-07 9.737186e-07 
-0.06343321 0.00544065 0.102075 -4.714886e-07 6.661052e-07 5.779291e-07 
-0.113839 -0.06241971 0.107655 -4.934967e-07 -3.410603e-07 8.000867e-07 
-0.0552108 0.00877304 0.103879 -6.107418e-08 2.769318e-07 9.589465e-07 
-0.0476543 0.0244041 0.09511811 -7.025153e-07 6.971777e-07 1.428825e-07 
-0.10005 -0.0361519 0.113172 -3.097421e-07 5.238368e-07 7.935077e-07 
-0.0794479 -0.0851735 0.0903081 6.925332e-07 -4.48765e-07 5.648074e-07 
-0.09377481 -0.0209109 0.0842744 -7.052572e-07 7.06325e-07 -6.096915e-08 
-0.128435 -0.0297323 0.0906086 -1.17096e-07 9.835469e-07 1.375641e-07 
-0.0749062 -0.058177 0.08914661 7.758762e-07 -3.361097e-07 5.338971e-07 
-0.142314 -0.0554271 0.0813902 -4.964724e-07 -8.643182e-07 -8.042974e-08 
-0.08549961 -0.0142607 0.08544111 -6.870306e-07 7.006424e-07 1.925848e-07 
-0.112324 -0.0334029 0.09792171 -1.730326e-07 9.572966e-07 2.316092e-07 
-0.129547 -0.065214 0.0810926 -7.782367e-07 -6.279319e-07 7.003043e-09 
-0.102345 -0.029387 0.101896 -5.106843e-07 8.590471e-07 -3.520562e-08 
-0.106418 -0.0318385 0.103834 -4.65362e-07 8.8013e-07 9.385725e-08 
-0.0511964 0.0143825 0.102457 -4.217468e-07 5.046512e-07 7.532972e-07 
-0.130121 -0.038157 0.102543 -2.148024e-07 5.687376e-07 7.939757e-07 
-0.0474029 0.0133391 0.103017 4.087484e-07 -1.464047e-07 9.008276e-07 
-0.0817279 -0.0212107 0.110267 3.689677e-07 8.080546e-08 9.259228e-07 
-0.128889 -0.0490863 0.106317 -4.187022e-08 1.551932e-07 9.869964e-07 
-0.09054631 -0.0707714 0.105687 3.461687e-08 4.896962e-07 8.712056e-07 
-0.0964255 -0.0230561 0.08596811 -5.013587e-07 8.400653e-07 2.071943e-07 
-0.063759 0.00754772 0.0960215 -7.280491e-07 6.646136e-07 1.680273e-07 
-0.09479491 -0.0843359 0.102381 1.749501e-08 -2.187122e-07 9.756325e-07 
-0.075339 -0.0394108 0.097935 5.088894e-07 -3.080751e-07 8.038166e-07 
-0.119616 -0.050976 0.10699 4.747742e-08 1.089524e-07 9.929124e-07 
-0.088499 -0.0177198 0.0883601 -7.466737e-07 6.571863e-07 1.028802e-07 
-0.0808982 -0.0801645 0.0962446 5.595548e-07 -6.005793e-07 5.711415e-07 
-0.0732215 -0.0601381 0.08429061 8.952595e-07 -2.699996e-07 3.544155e-07 
-0.102345 -0.0891939 0.0976764 -4.569641e-07 -8.770997e-07 1.479175e-07 
-0.133417 -0.0481241 0.105083 -5.155724e-07 4.687e-07 7.172902e-07 
-0.117933 -0.0686373 0.102755 -8.668585e-07 -4.933154e-07 7.208404e-08 
-0.0519498 0.0190883 0.0883744 -7.847665e-07 6.051625e-07 -1.338642e-07 
-0.09005 -0.0180222 0.0851602 -6.016288e-07 7.763269e-07 1.880405e-07 
-0.0950164 -0.0907428 0.0850722 -4.80363e-07 -8.580689e-07 -1.815734e-07 
-0.0993791 -0.0507102 0.112236 4.502715e-07 -5.232189e-07 7.235312e-07 
-0.111029 -0.0639241 0.10742 5.561141e-08 -4.270422e-07 9.025199e-07 
-0.121324 -0.0300545 0.0936635 2.491938e-07 9.332884e-07 2.586021e-07 
-0.117177 -0.0593528 0.10708 -2.201899e-07 8.247414e-08 9.719641e-07 
-0.140325 -0.0400689 0.0951941 -7.703443e-07 5.235233e-07 3.639958e-07 
-0.0786685 -0.0613094 0.0934358 8.011434e-07 -6.269114e-08 5.951799e-07 
-0.0999551 -0.0280893 0.09522881 -6.058617e-07 7.946397e-07 -3.846034e-08 
-0.0894441 -0.0896786 0.0982147 3.248484e-07 -1.253131e-07 9.374273e-07 
-0.122167 -0.0656064 0.102725 -3.714041e-07 -6.76224e-07 6.362232e-07 
-0.0863791 -0.0281667 0.112797 3.256138e-07 -2.57469e-08 9.451521e-07 
-0.130734 -0.0568946 0.1051 -2.438423e-07 -1.413624e-07 9.594568e-07 
-0.08885311 -0.038014 0.110771 4.670513e-07 -5.394209e-07 7.00634e-07 
-0.09353881 -0.0505683 0.106588 6.885103e-07 -1.282351e-07 7.13799e-07 
-0.076852 -0.0158494 0.108047 3.479763e-07 -4.139982e-09 9.374941e-07 
-0.0724001 -0.00208542 0.0919907 -7.456559e-07 6.662398e-07 -1.102457e-08 
-0.131388 -0.0642668 0.0878696 -6.720677e-07 -7.370638e-07 -7.114622e-08 
-0.08453891 -0.0130861 0.0840012 -6.586133e-07 7.352052e-07 1.603177e-07 
-0.0975385 -0.0441032 0.114219 2.998412e-07 -1.364856e-07 9.441752e-07 
-0.139921 -0.0344589 0.0817715 -5.860405e-07 8.040352e-07 -1.004175e-07 
-0.114798 -0.0388729 0.106376 -4.980351e-07 -3.074264e-08 8.666116e-07 
-0.114057 -0.0293215 0.0872601 -1.172562e-07 9.813123e-07 1.52568e-07 
-0.09674331 -0.08849631 0.101236 -9.90924e-09 -4.865341e-07 8.736053e-07 
-0.0858065 -0.0480972 0.101064 5.067695e-07 -2.804439e-07 8.151906e-07 
-0.0865586 -0.057545 0.100954 4.043454e-07 1.068528e-07 9.083431e-07 
-0.101156 -0.0413543 0.114421 -7.073722e-08 1.895476e-07 9.7932e-07 
-0.130582 -0.0372887 0.101348 -3.150556e-07 7.088228e-07 6.311182e-07 
-0.120971 -0.0380274 0.104628 -1.992455e-07 1.999692e-07 9.593297e-07 
-0.124836 -0.06799491 0.0970097 -1.790436e-07 -8.402507e-07 5.117832e-07 
-0.0954904 -0.0233881 0.0891904 -4.698849e-07 8.471494e-07 2.480844e-07 
-0.066754 -0.000168032 0.105131 -2.828736e-07 6.321463e-07 7.213691e-07 
-0.125 -0.0647325 0.101938 -3.256062e-07 -7.127922e-07 6.212147e-07 
-0.0495206 0.0121768 0.103542 1.644598e-07 -1.40468e-07 9.763306e-07 
-0.136255 -0.0343796 0.0931958 -5.107929e-07 8.193192e-07 2.603971e-07 
-0.0904975 -0.0940871 0.0840688 -6.381953e-07 -7.345645e-07 -2.304813e-07 
-0.0837223 -0.0983911 0.0873872 1.236954e-07 -9.379603e-07 3.239287e-07 
-0.0684878 0.0017553 0.09006 -7.32085e-07 6.698656e-07 -1.238203e-07 
-0.078989 -0.0935349 0.0844049 8.954451e-07 -2.708398e-07 3.533041e-07 
-0.057721 0.0140981 0.09395041 -7.260178e-07 6.857655e-07 -5.122214e-08 
-0.0619311 -0.000384993 0.105014 2.902376e-07 -1.574582e-07 9.439115e-07 
-0.146715 -0.0549377 0.09209511 -5.10623e-07 -8.598043e-07 7.314082e-10 
-0.06501081 0.00599451 0.0961944 -6.717566e-07 7.262789e-07 1.458141e-07 
-0.100981 -0.08784661 0.08600151 -2.063824e-07 -9.513303e-07 -2.288596e-07 
-0.127018 -0.030648 0.0948981 -2.921902e-07 8.646139e-07 4.087389e-07 
-0.121546 -0.0507793 0.107509 8.377103e-08 -1.863919e-07 9.788976e-07 
-0.132677 -0.0309162 0.0888499 -3.887572e-07 9.083458e-07 1.541934e-07 
-0.111728 -0.06913771 0.106418 -9.63427e-08 -3.26534e-07 9.402625e-07 
-0.09948561 -0.0297936 0.107921 -4.343184e-07 6.732128e-07 5.98458e-07 
-0.0949714 -0.0926792 0.09260561 -5.769277e-07 -8.145457e-07 -6.057745e-08 
-0.111502 -0.0796916 0.0975191 -7.015693e-07 -6.871459e-07 1.887618e-07 
-0.105699 -0.0274178 0.0828612 -3.552979e-07 7.670758e-07 -5.34189e-07 
-0.119743 -0.0300981 0.0835119 6.343489e-08 9.099308e-07 -4.098803e-07 
-0.08807511 -0.040581 0.107481 6.120295e-07 -6.4192e-07 4.619074e-07 
-0.105121 -0.0421592 0.113547 -3.297258e-07 1.169505e-07 9.368048e-07 
-0.132817 -0.052845 0.105757 -2.888548e-07 -1.093431e-07 9.511082e-07 
-0.109649 -0.0864019 0.08939371 -3.966651e-07 -8.986862e-07 1.871358e-07 
-0.0437451 -0.011626 0.0859244 6.614893e-07 -5.509605e-07 5.087968e-07 
-0.103307 -0.0885357 0.09860741 -4.569642e-07 -8.770997e-07 1.479175e-07 
-0.07084581 -0.000500053 0.0923175 -8.120865e-07 5.803233e-07 -6.115748e-08 
-0.136063 -0.060083 0.08651641 -6.036304e-07 -7.897803e-07 -1.089826e-07 
-0.132103 -0.0376736 0.101021 -5.007596e-07 5.888475e-07 6.344275e-07 
-0.127169 -0.0486052 0.106125 7.706663e-08 1.195076e-07 9.898376e-07 
-0.11753 -0.034377 0.10182 2.600365e-07 9.135315e-07 3.127955e-07 
-0.115405 -0.0366159 0.105571 -3.048405e-07 7.03832e-07 6.416328e-07 
-0.09872261 -0.0782593 0.105346 -1.801984e-07 -1.02184e-07 9.783081e-07 
-0.136276 -0.031792 0.0829155 -5.333638e-07 8.409078e-07 9.163509e-08 
-0.106008 -0.0496483 0.112805 -4.638285e-07 -2.357089e-07 8.539931e-07 
-0.082293 -0.0238828 0.110733 4.861632e-07 4.934105e-08 8.724738e-07 
-0.077236 -0.0698614 0.0914562 9.370775e-07 5.294408e-08 3.450834e-07 
-0.10314 -0.0758138 0.105514 -7.09528e-09 -4.69871e-08 9.988702e-07 
-0.0697002 0.000364166 0.0871655 -6.301395e-07 7.739189e-07 -6.303602e-08 
-0.115738 -0.0296612 0.0881531 8.185245e-08 9.873941e-07 1.354726e-07 
-0.0791996 -0.0403614 0.100186 5.718255e-07 -4.400664e-07 6.923561e-07 
-0.0598522 -0.0365055 0.0865633 7.042378e-07 -4.55799e-07 5.443309e-07 
-0.126308 -0.0702336 0.0891417 -6.014853e-07 -7.426651e-07 2.94387e-07 
-0.117974 -0.0444447 0.105722 -3.654449e-07 2.412513e-07 8.990259e-07 
-0.119549 -0.0704852 0.0976393 -6.262235e-07 -5.655188e-07 5.366865e-07 
-0.0800755 -0.0352056 0.104249 5.782024e-07 -4.481932e-07 6.817658e-07 
-0.139507 -0.0375666 0.0924836 -8.107479e-07 5.598808e-07 1.709423e-07 
-0.09793261 -0.085266 0.103264 9.984822e-08 -6.354878e-08 9.929711e-07 
-0.09266601 -0.0207997 0.0873629 -5.544817e-07 8.231377e-07 1.224504e-07 
-0.0803769 -0.0971409 0.08381401 8.507465e-07 -4.731528e-07 2.28816e-07 
-0.108342 -0.0866428 0.09669021 -5.372277e-07 -8.416767e-07 5.446559e-08 
-0.101461 -0.0275375 0.09126171 -4.033026e-07 8.57039e-07 3.206725e-07 
-0.101491 -0.026111 0.0871764 -4.808254e-07 8.653014e-07 1.416342e-07 
-0.09798971 -0.0511767 0.111034 6.866249e-07 -3.544372e-07 6.347601e-07 
-0.0941559 -0.06555881 0.10602 5.459273e-07 -2.159721e-07 8.095179e-07 
-0.119866 -0.0336597 0.101525 2.102023e-07 8.688767e-07 4.481832e-07 
-0.07717711 -0.00696103 0.0975935 -7.525983e-07 6.568714e-07 -4.599431e-08 
-0.101965 -0.08832821 0.088976 -4.001793e-07 -8.903318e-07 -2.171762e-07 
-0.122655 -0.062579 0.105174 -1.865754e-07 -4.202656e-07 8.880126e-07 
-0.0477421 0.0247522 0.0917469 6.966513e-07 7.16967e-07 -2.520279e-08 
-0.0714448 -0.0193611 0.104902 4.13887e-07 -3.072721e-07 8.569021e-07 
-0.11187 -0.0539632 0.108804 -1.025886e-07 -4.265369e-07 8.986332e-07 
-0.1258 -0.06012851 0.10555 -2.324444e-07 -3.157552e-07 9.199283e-07 
-0.127776 -0.0651838 0.100125 -1.44957e-08 -7.059911e-07 7.080722e-07 
-0.137092 -0.0548017 0.103041 -6.774766e-07 -2.719809e-07 6.834118e-07 
-0.07685031 -0.0611566 0.09100451 8.731e-07 -1.089113e-07 4.752206e-07 
-0.0319951 0.00936316 0.0889711 6.964233e-07 7.17186e-07 -2.527025e-08 
-0.09721631 -0.0522776 0.109854 5.86924e-07 -3.632487e-07 7.235817e-07 
-0.108645 -0.0584524 0.109636 1.712046e-07 -4.766365e-07 8.622682e-07 
-0.125548 -0.03508841 0.101289 -4.32156e-07 5.275789e-07 7.313697e-07 
-0.0711029 -0.0142595 0.105981 4.781768e-07 -2.040384e-07 8.542336e-07 
-0.0587896 -0.00584897 0.102144 5.159397e-07 -3.182372e-07 7.953182e-07 
-0.137377 -0.0616354 0.0981253 -6.286133e-07 -7.63485e-07 -1.481075e-07 
-0.10981 -0.0814701 0.09802861 -5.337287e-07 -5.561207e-07 6.37074e-07 
-0.08416861 -0.0240338 0.111633 4.141542e-07 1.771016e-07 8.928108e-07 
-0.12116 -0.0694014 0.0971259 -4.46592e-07 -7.841307e-07 4.309227e-07 
-0.08242611 -0.0709381 0.101614 4.981611e-07 4.512699e-07 7.403991e-07 
-0.123166 -0.0552543 0.106479 -2.296044e-08 1.086589e-07 9.938138e-07 
-0.118024 -0.0768602 0.08563021 -8.138235e-07 -4.930961e-07 3.074855e-07 
-0.06623281 0.00486814 0.09617501 -6.914419e-07 7.212516e-07 -4.127919e-08 
-0.0857394 -0.09861951 0.08656821 -3.057408e-08 -9.915108e-07 1.263782e-07 
-0.108728 -0.0599365 0.108999 -2.420292e-08 -1.341976e-07 9.906589e-07 
-0.109662 -0.068198 0.106917 -5.181643e-08 -2.675574e-07 9.621475e-07 
-0.0636223 -0.0451555 0.0827983 7.551205e-07 -5.558672e-07 3.475691e-07 
-0.121033 -0.07502431 0.0854256 -3.179143e-07 -7.127692e-07 6.252123e-07 
-0.144142 -0.0477609 0.09545611 -7.896249e-07 3.293055e-07 5.177356e-07 
-0.102687 -0.0266678 0.0865179 -5.285262e-07 8.26793e-07 1.925439e-07 
-0.105657 -0.08779731 0.09416111 -2.329845e-07 -9.650296e-07 -1.201492e-07 
-0.129528 -0.0308626 0.0940337 -3.287662e-07 8.907351e-07 3.138527e-07 
-0.107089 -0.0873088 0.09044661 -8.847509e-08 -9.938533e-07 -6.654073e-08 
-0.15034 -0.0509457 0.0836122 -9.950588e-07 3.627127e-08 9.242337e-08 
-0.0824813 -0.08533291 0.0940624 6.253127e-07 -2.490168e-07 7.395773e-07 
-0.0689702 -0.00140903 0.105085 -2.814464e-07 4.716391e-07 8.356699e-07 
-0.120156 -0.0717914 0.09197561 -5.044894e-07 -7.80073e-07 3.701031e-07 
-0.126919 -0.0304258 0.08205561 6.936379e-08 9.812927e-07 -1.795918e-07 
-0.107109 -0.0285798 0.08540381 -2.466096e-07 9.013444e-07 3.56036e-07 
-0.127426 -0.05096021 0.10658 3.689345e-08 -2.02937e-09 9.993171e-07 
-0.108537 -0.0286617 0.08309381 -2.121043e-07 9.521069e-07 -2.202366e-07 
-0.0778989 -0.0078773 0.0954477 -6.631105e-07 7.480808e-07 2.568099e-08 
-0.0748474 -0.010265 0.107403 2.115355e-07 1.158132e-07 9.704843e-07 
-0.0830003 -0.0364675 0.105954 6.776129e-07 -5.687536e-07 4.662189e-07 
-0.0780528 -0.0360157 0.102001 5.718255e-07 -4.400664e-07 6.923561e-07 
-0.141327 -0.0361707 0.08195 -7.654742e-07 6.376924e-07 8.600824e-08 
-0.09873611 -0.0254555 0.08982061 -4.359977e-07 7.930568e-07 4.254018e-07 
-0.0946788 -0.0239612 0.0952914 -6.16549e-07 7.871956e-07 1.378828e-08 
-0.0953273 -0.0924659 0.0976015 -3.25217e-07 -8.454387e-07 4.236356e-07 
-0.130078 -0.0658922 0.0909486 -7.244922e-07 -6.871773e-07 -5.383449e-08 
-0.0567765 0.0148248 0.09685411 -6.990886e-07 6.994836e-07 1.48316e-07 
-0.0320822 0.005273701 0.0863371 6.386155e-07 -4.26261e-07 6.406805e-07 
-0.147623 -0.0537108 0.0931525 -7.909688e-07 -6.064682e-07 8.10215e-08 
-0.127319 -0.0689427 0.08918101 -7.784599e-07 -6.136882e-07 1.318589e-07 
-0.119213 -0.0364884 0.104883 -2.337243e-07 5.137525e-07 8.254884e-07 
-0.148759 -0.0529864 0.0911518 -8.390373e-07 -3.627308e-07 4.055153e-07 
-0.09551191 -0.0901586 0.08362231 -4.80363e-07 -8.580689e-07 -1.815734e-07 
-0.134433 -0.06078 0.0810251 -6.466536e-07 -7.593591e-07 -7.219818e-08 
-0.0752904 -0.0606097 0.08826391 7.706024e-07 -3.213932e-07 5.503437e-07 
-0.123823 -0.0710773 0.0899419 -1.371909e-07 -8.136134e-07 5.649881e-07 
-0.051113 0.0204082 0.0963928 -7.170847e-07 6.678551e-07 1.993965e-07 
-0.0729226 -0.015247 0.106559 3.684666e-07 -1.411671e-07 9.188602e-07 
-0.0933119 -0.0414931 0.112275 6.253408e-07 -4.197601e-07 6.578375e-07 
-0.105775 -0.0681036 0.107346 -8.12899e-08 -3.854792e-07 9.191287e-07 
-0.0615989 -0.00350987 0.104232 4.195363e-07 -2.449165e-07 8.740738e-07 
-0.0978922 -0.0885236 0.0819247 -4.60026e-07 -8.762562e-07 -1.433565e-07 
-0.0885123 -0.09646431 0.0844388 -6.509137e-07 -7.336528e-07 -1.951021e-07 
-0.101186 -0.0322507 0.109451 -4.343184e-07 6.732128e-07 5.98458e-07 
-0.0988313 -0.0312783 0.110066 -4.321375e-07 6.575105e-07 6.172008e-07 
-0.0615651 0.00671175 0.102134 -4.714886e-07 6.661053e-07 5.779292e-07 
-0.136736 -0.0532845 0.103412 -5.711783e-07 -3.508465e-07 7.420659e-07 
-0.0847522 -0.0920704 0.0940121 6.980165e-07 -2.263877e-07 6.793537e-07 
-0.0918375 -0.0214343 0.09218571 -7.006204e-07 6.722346e-07 2.392309e-07 
-0.0584545 0.0107379 0.100873 -6.041318e-07 6.447115e-07 4.683714e-07 
-0.0821224 -0.0192855 0.110284 3.478061e-07 2.52526e-07 9.029183e-07 
-0.0622229 -0.00569154 0.10387 2.74166e-07 -2.332231e-07 9.329737e-07 
-0.0909321 -0.0727154 0.105508 -1.494976e-07 -1.639466e-07 9.750753e-07 
-0.139353 -0.0465315 0.100452 -6.519871e-07 3.657736e-07 6.641705e-07 
-0.0585598 -0.0326321 0.0877329 7.220282e-07 -4.093376e-07 5.577793e-07 
-0.136185 -0.0393303 0.0990002 -6.445717e-07 4.413897e-07 6.242612e-07 
-0.110003 -0.0853539 0.0962429 -7.283272e-07 -3.979584e-07 5.578246e-07 
-0.0529106 0.00292536 0.101934 5.416607e-07 -3.323139e-07 7.72121e-07 
-0.108833 -0.08660831 0.09287611 -4.689373e-07 -8.790605e-07 8.573328e-08 
-0.0607791 0.00927598 0.100319 -5.504893e-07 7.072222e-07 4.436193e-07 
-0.103236 -0.0522105 0.112124 1.550297e-07 -4.782175e-07 8.644499e-07 
-0.08065961 -0.08216671 0.09412551 4.656184e-07 -6.165013e-07 6.349217e-07 
-0.123883 -0.0296363 0.0919074 3.842367e-08 9.832505e-07 1.781625e-07 
-0.0820944 -0.0151931 0.109074 -4.98726e-08 2.746625e-07 9.602463e-07 
-0.101029 -0.08770251 0.0844065 -2.168879e-07 -9.727997e-07 -8.136325e-08 
-0.0736588 -0.00343487 0.0933777 -7.575375e-07 6.505069e-07 -5.456658e-08 
-0.138748 -0.05986561 0.09306861 -4.946552e-07 -8.514858e-07 -1.740342e-07 
-0.107803 -0.0360355 0.108417 -3.396248e-07 6.271461e-07 7.009583e-07 
-0.12493 -0.0306853 0.0814059 6.936379e-08 9.812927e-07 -1.795918e-07 
-0.114561 -0.0561682 0.107689 -1.361079e-08 -1.243625e-07 9.921433e-07 
-0.135012 -0.0533737 0.104625 -5.253808e-07 -2.753269e-07 8.050901e-07 
-0.0866662 -0.08028781 0.100038 3.042737e-07 -7.399576e-07 5.999001e-07 
-0.0804939 -0.0966693 0.0852242 7.36153e-07 -5.959851e-07 3.207495e-07 
-0.12653 -0.06790651 0.09656221 -4.164166e-07 -8.556621e-07 3.0731e-07 
-0.0641695 0.000410952 0.105291 -2.940477e-07 3.429746e-07 8.921346e-07 
-0.08647671 -0.08750161 0.0974034 7.018813e-07 -1.454557e-07 6.972841e-07 
-0.08662371 -0.0622675 0.100759 6.463297e-07 -1.930368e-08 7.62814e-07 
-0.113758 -0.08496261 0.08699421 -6.521167e-07 -7.47055e-07 1.290445e-07 
-0.0917898 -0.0478276 0.105696 6.084018e-07 -3.940968e-07 6.888649e-07 
-0.107243 -0.0620145 0.10843 -2.212058e-07 -3.326354e-07 9.167451e-07 
-0.125316 -0.0713814 0.08827291 -7.109551e-07 -6.207814e-07 3.304135e-07 
-0.113604 -0.0289674 0.08353881 -3.208881e-08 9.980565e-07 -5.341604e-08 
-0.104902 -0.0485391 0.113532 -3.124127e-07 -6.786451e-08 9.475191e-07 
-0.119788 -0.0671597 0.102315 -4.174631e-07 -7.650516e-07 4.903269e-07 
-0.115144 -0.0765752 0.09433751 -6.964896e-07 -7.17125e-07 2.517511e-08 
-0.123823 -0.0304925 0.08238671 -1.500928e-09 9.815399e-07 -1.91251e-07 
-0.117531 -0.065859 0.10517 -3.55582e-07 -4.568302e-07 8.15394e-07 
-0.0450705 0.0195252 0.102234 -2.886655e-07 3.672038e-07 8.842135e-07 
-0.0703456 -0.00134992 0.103859 -5.792315e-07 7.441536e-07 3.327554e-07 
-0.0641598 0.00373005 0.103506 -4.005027e-07 6.04382e-07 6.887087e-07 
-0.07853041 -0.0764435 0.09647951 9.113389e-07 2.633848e-08 4.108132e-07 
-0.08939791 -0.0190388 0.0917777 -7.2924e-07 6.644852e-07 1.633041e-07 
-0.12244 -0.0762268 0.0825386 -4.675641e-07 -6.861773e-07 5.572651e-07 
-0.105513 -0.08114321 0.103234 -4.642743e-07 -7.954525e-07 3.894925e-07 
-0.06989141 -0.000161091 0.101991 -6.382306e-07 6.511701e-07 4.106567e-07 
-0.104242 -0.0306366 0.0973027 -3.811127e-07 9.226103e-07 5.952404e-08 
-0.0403682 -0.0051233 0.08791321 5.715145e-07 -4.545111e-07 6.832207e-07 
-0.09215441 -0.0944079 0.0949254 -3.3261e-07 -8.798798e-07 3.393846e-07 
-0.141594 -0.0410513 0.09357981 -7.412984e-07 5.273822e-07 4.151441e-07 
-0.0646068 -0.0160912 0.101775 5.311211e-07 -3.781561e-07 7.58227e-07 
-0.113896 -0.0793796 0.09288231 -7.902456e-07 -3.537376e-07 5.003812e-07 
-0.114222 -0.02952 0.08145341 -3.738178e-07 6.760626e-07 -6.349798e-07 
-0.117006 -0.0832621 0.0807303 -5.848901e-07 -8.105251e-07 -3.086098e-08 
-0.101956 -0.06499361 0.108356 4.661998e-08 -3.373626e-07 9.402196e-07 
-0.138993 -0.05751611 0.08298811 -4.336905e-07 -8.98374e-07 -6.954434e-08 
-0.105431 -0.08762021 0.09230041 -2.32407e-07 -9.647611e-07 -1.233809e-07 
-0.139476 -0.0417424 0.0973322 -6.905685e-07 4.104831e-07 5.954986e-07 
-0.123393 -0.0736142 0.0866653 -1.75103e-07 -8.443293e-07 5.064058e-07 
-0.125674 -0.0446966 0.105116 6.123729e-08 1.588727e-07 9.853981e-07 
-0.144367 -0.0545344 0.08076551 -3.617059e-07 -9.119298e-07 -1.937855e-07 
-0.08763801 -0.0478218 0.102155 4.139161e-07 -4.286707e-07 8.030657e-07 
-0.0451704 0.00826728 0.09935031 5.243844e-07 -3.73963e-07 7.649657e-07 
-0.07608931 -0.00570869 0.09749031 -6.709856e-07 7.389361e-07 6.125107e-08 
-0.0834757 -0.0134426 0.0944366 -7.651944e-07 6.423262e-07 4.352413e-08 
-0.114293 -0.0510035 0.108515 -4.335009e-07 -1.060353e-07 8.948929e-07 
-0.129436 -0.0536527 0.106013 5.730737e-08 -2.592455e-07 9.641096e-07 
-0.123872 -0.0298804 0.08526371 3.187316e-08 9.705398e-07 -2.388231e-07 
-0.09185141 -0.0544439 0.104349 7.118002e-07 -3.986819e-09 7.023705e-07 
-0.08398841 -0.013734 0.09828801 -6.674499e-07 7.409837e-07 -7.384828e-08 
-0.124945 -0.0507448 0.106679 1.555629e-08 -3.551433e-07 9.346823e-07 
-0.0550937 -0.024849 0.089145 6.732688e-07 -5.184953e-07 5.271353e-07 
-0.0829973 -0.06980201 0.100615 5.705822e-07 3.589582e-07 7.386371e-07 
-0.11754 -0.07139721 0.100884 -9.069926e-07 -2.154216e-07 3.618808e-07 
-0.146521 -0.0433148 0.08168931 -9.060354e-07 4.052334e-07 1.220058e-07 
-0.117518 -0.030466 0.08189511 -8.479866e-08 9.776345e-07 -1.924572e-07 
-0.102873 -0.08765201 0.100636 -3.933463e-07 -3.917226e-07 8.317643e-07 
-0.08895601 -0.0428572 0.106106 5.269466e-07 -5.794892e-07 6.217068e-07 
-0.0700009 0.000250313 0.0887736 -6.37833e-07 7.695252e-07 3.162047e-08 
-0.0915336 -0.0216274 0.108207 -7.621598e-07 5.788918e-07 2.898215e-07 
-0.09902571 -0.0883902 0.0850972 -3.318834e-07 -9.308089e-07 -1.531274e-07 
-0.108005 -0.0729281 0.105827 -1.376282e-07 -2.883557e-07 9.475807e-07 
-0.0846394 -0.0345687 0.110297 7.253738e-07 -4.078999e-07 5.54482e-07 
-0.0666742 0.00416759 0.099129 -6.6286e-07 7.466805e-07 5.553892e-08 
-0.124756 -0.0566351 0.106601 -1.34944e-07 1.436333e-07 9.803874e-07 
-0.08377661 -0.084645 0.0953892 6.814225e-07 -1.766197e-07 7.102596e-07 
-0.0907932 -0.0823916 0.101595 4.254144e-07 -2.928852e-07 8.562947e-07 
-0.0881891 -0.0180143 0.09729071 -7.098937e-07 6.832868e-07 -1.707919e-07 
-0.07256581 -0.0023046 0.0899526 -7.456559e-07 6.662398e-07 -1.102457e-08 
-0.08291571 -0.0386282 0.103841 6.298948e-07 -5.302862e-07 5.67476e-07 
-0.140033 -0.0580984 0.0903082 -6.081899e-07 -7.607104e-07 -2.267698e-07 
-0.06571711 0.00471207 0.08408301 -5.993444e-07 7.95658e-07 8.783207e-08 
-0.0820718 -0.0535574 0.0971491 6.279355e-07 9.020876e-08 7.730195e-07 
-0.08481631 -0.07979 0.0995217 3.611626e-07 -6.163795e-07 6.997412e-07 
-0.0638964 0.00692063 0.0919379 -7.147617e-07 6.816682e-07 -1.563458e-07 
-0.0884413 -0.0167846 0.0858678 -6.025472e-07 7.400846e-07 2.986826e-07 
-0.0778451 -0.06261531 0.09218991 8.011434e-07 -6.269114e-08 5.951799e-07 
-0.10834 -0.0477296 0.111745 -5.759756e-07 -2.765593e-09 8.17462e-07 
-0.09405661 -0.0825647 0.102995 3.404001e-07 -5.670522e-07 7.500529e-07 
-0.1482 -0.0463831 0.0795769 -8.506717e-07 5.051477e-07 -1.455452e-07 
-0.0602602 0.0111963 0.0947448 -7.176207e-07 6.956155e-07 -3.375322e-08 
-0.115121 -0.0772681 0.09280281 -7.40361e-07 -6.285559e-07 2.382915e-07 
-0.0639789 -0.0444329 0.0847287 6.565507e-07 -5.266766e-07 5.399564e-07 
-0.115877 -0.0297996 0.0847727 -5.877595e-08 9.373335e-07 -3.434402e-07 
-0.0617743 0.00847025 0.0850255 -7.309829e-07 6.823208e-07 -1.010786e-08 
-0.145625 -0.0555998 0.0946085 -6.384331e-07 -7.660062e-07 7.508392e-08 
-0.106094 -0.0528225 0.11223 -3.159323e-07 -3.596503e-07 8.779739e-07 
-0.115493 -0.070335 0.104322 -3.898937e-07 -4.506237e-07 8.030698e-07 
-0.135569 -0.0441333 0.102165 -5.24075e-07 3.027411e-07 7.960484e-07 
-0.135407 -0.0602031 0.0836812 -6.466536e-07 -7.593591e-07 -7.219818e-08 
-0.0638286 -0.00658318 0.104312 3.432924e-07 -1.593836e-07 9.256063e-07 
-0.0966531 -0.0702129 0.106363 2.836236e-07 -1.55468e-07 9.46249e-07 
